-0.490090 0.306190 0.055480 0.000109 -0.993591 -0.113032
-0.305610 0.408080 -0.073570 0.962394 -0.005455 0.271604
-0.313070 0.414520 -0.038810 0.985778 0.000498 0.168051
-0.309780 0.374630 -0.049770 0.979727 -0.009220 0.200127
-0.315600 0.343620 -0.027360 0.999912 -0.006711 0.011481
-0.308140 0.337180 -0.062130 0.913693 -0.009412 0.406296
-0.419410 0.282610 -0.112550 -0.008890 0.915219 -0.402860
-0.428890 0.266570 -0.143160 -0.000399 0.864180 -0.503183
-0.389650 0.272910 -0.129620 0.009384 -0.889839 0.456178
-0.358560 0.274980 -0.126380 -0.007473 0.890906 -0.454126
-0.316830 0.274950 -0.127370 -0.015393 0.778443 -0.627526
-0.338430 0.288910 -0.099990 0.004126 -0.883300 0.468789
-0.362370 0.235640 -0.184760 -0.000737 -0.767586 0.640945
-0.368050 0.258940 -0.157000 0.003166 -0.836081 0.548596
-0.393460 0.233560 -0.187990 0.008469 0.765189 -0.643750
-0.354530 0.195200 -0.227840 -0.003220 -0.645860 0.763449
-0.315900 0.202130 -0.220540 -0.004764 -0.664283 0.747466
-0.349150 0.217190 -0.208460 0.000327 -0.716333 0.697759
-0.323740 0.242560 -0.177460 0.010469 -0.787340 0.616430
-0.429570 0.246780 -0.174010 -0.005143 -0.803128 0.595784
-0.423890 0.223480 -0.201780 -0.000122 -0.732979 0.680252
-0.459210 0.210760 -0.212460 -0.005372 -0.691137 0.722704
-0.423100 0.197540 -0.226440 0.005828 -0.644517 0.764567
-0.527280 0.199960 -0.223160 -0.006982 -0.674690 0.738068
-0.492860 0.180600 -0.240220 -0.008089 -0.508320 0.861130
-0.492830 0.204190 -0.220070 -0.002694 -0.682111 0.731244
-0.493630 0.230130 -0.195400 -0.005005 -0.840915 0.541144
-0.527560 0.235940 -0.240170 -1.000000 -0.000000 -0.000000
-0.527590 0.212350 -0.260320 -1.000000 -0.000000 -0.000000
-0.527260 0.244230 -0.175730 0.002981 -0.834524 0.550963
-0.527570 0.283510 -0.181820 -1.000000 -0.000000 -0.000000
-0.527560 0.262840 -0.209110 -1.000000 -0.000000 -0.000000
-0.527880 0.275220 -0.246270 0.999799 0.013785 -0.014533
-0.527560 0.324440 -0.122410 -1.000000 0.000002 0.000534
-0.527570 0.310710 -0.151140 -1.000000 -0.000296 0.000705
-0.527250 0.278630 -0.119720 0.004693 -0.840969 0.541062
-0.527880 0.282670 -0.285240 0.999999 0.000979 -0.001037
-0.527880 0.217390 -0.297360 0.999990 0.002495 -0.003651
-0.527590 0.181410 -0.280350 -1.000000 -0.000000 -0.000000
-0.425410 0.140020 -0.265110 0.003865 -0.464436 0.885598
-0.425420 0.169940 -0.247430 0.001766 -0.555570 0.831468
-0.458400 0.154900 -0.254810 0.001336 -0.506246 0.862388
-0.492850 0.150670 -0.257910 -0.008089 -0.508320 0.861130
-0.527250 0.094560 -0.283960 -0.999999 -0.001016 0.001132
-0.492800 0.095060 -0.283340 0.003822 0.502954 -0.864304
-0.492830 0.124480 -0.273130 -0.008089 -0.508320 0.861130
-0.527580 0.155220 -0.295570 -0.999999 -0.000726 0.000906
-0.527880 0.151970 -0.338760 0.999992 0.001955 -0.003378
-0.527580 0.120730 -0.316940 -0.999999 -0.000340 0.000941
-0.527550 0.091310 -0.327150 -1.000000 -0.000587 -0.000140
-0.527880 0.188160 -0.351290 0.999999 0.000859 -0.001254
-0.527880 0.153670 -0.372660 0.999999 0.000775 -0.001276
-0.527880 0.296140 -0.364350 1.000000 -0.000007 0.000006
-0.527880 0.319630 -0.403090 1.000000 0.000031 0.000630
-0.527880 0.283980 -0.398530 1.000000 0.000038 0.000690
-0.527880 0.271120 -0.439670 0.999991 -0.000121 0.004302
-0.527880 0.247640 -0.400930 1.000000 -0.000076 0.000613
-0.527880 0.212320 -0.413630 0.999999 -0.000145 0.001461
-0.527880 0.225180 -0.372490 1.000000 0.000000 -0.000000
-0.527600 0.214550 -0.476330 -1.000000 -0.000000 -0.000000
-0.527600 0.174060 -0.477170 -1.000000 0.000077 -0.000866
-0.527880 0.194290 -0.442920 0.999800 -0.003185 0.019757
-0.527880 0.171830 -0.414480 0.999999 0.000069 0.001474
-0.527880 0.118460 -0.440160 0.999990 0.000273 0.004547
-0.527880 0.100300 -0.398350 1.000000 0.000315 -0.000303
-0.527880 0.135640 -0.401940 1.000000 0.000262 0.000408
-0.527230 0.080790 -0.510620 -0.006519 0.000863 -0.999978
-0.527540 0.063720 -0.473590 -0.999998 -0.000341 -0.001731
-0.527570 0.100200 -0.473600 -0.999998 -0.000386 -0.001765
-0.443090 0.387140 -0.511370 0.002411 -0.000204 0.999997
-0.432800 0.350450 -0.511370 0.001435 0.000364 0.999999
-0.467660 0.352650 -0.511370 -0.000051 0.000029 -1.000000
-0.492340 0.330440 -0.511020 -0.000237 0.000117 -1.000000
-0.502620 0.367120 -0.511020 -0.000103 0.000180 -1.000000
-0.462150 0.421060 -0.511370 0.019961 -0.005059 0.999788
-0.427290 0.418860 -0.511370 0.001306 -0.002050 0.999997
-0.267630 0.518890 -0.510670 -0.000352 0.003863 -0.999992
-0.263210 0.482560 -0.511030 -0.000550 0.001592 -0.999999
-0.292630 0.482580 -0.511000 -0.000480 0.001711 -0.999998
-0.251170 0.447490 -0.511370 0.000397 -0.004809 0.999988
-0.232670 0.409940 -0.511370 0.000380 -0.001903 0.999998
-0.269710 0.408710 -0.511370 0.000330 -0.001250 0.999999
-0.197250 0.417350 -0.511370 0.001471 -0.002837 0.999995
-0.215790 0.378570 -0.511380 0.001960 -0.004279 0.999989
-0.220790 0.341100 -0.511680 0.000656 -0.001260 0.999999
-0.185360 0.348510 -0.511690 0.001125 -0.002094 0.999997
-0.158870 0.361220 -0.511790 0.001239 -0.003565 0.999993
-0.163870 0.323760 -0.512100 0.407471 -0.913218 -0.000205
-0.158660 0.326480 -0.546260 0.407471 -0.913218 -0.000205
-0.185150 0.313770 -0.546150 0.407471 -0.913218 -0.000205
-0.195640 0.306820 -0.614120 0.527136 -0.849780 -0.001017
-0.164690 0.323910 -0.615130 0.445959 -0.895049 0.002833
-0.180390 0.314240 -0.648930 0.483554 -0.875308 0.003338
-0.227420 0.284550 -0.682150 0.608045 -0.793896 0.003126
-0.254060 0.262030 -0.681820 0.684815 -0.728715 -0.001642
-0.237990 0.274630 -0.647580 -0.644467 0.764631 -0.000918
-0.195830 0.306710 -0.682740 0.529643 -0.848217 0.002506
-0.211900 0.294110 -0.716970 0.572837 -0.819667 -0.001919
-0.146930 0.331030 -0.583010 0.400112 -0.916456 0.004349
-0.131680 0.338440 -0.617830 0.358129 -0.933662 0.004314
-0.092320 0.350840 -0.619510 -0.251270 0.967854 -0.011068
-0.110070 0.343710 -0.651620 0.294313 -0.955694 0.005318
-0.059510 0.358090 -0.619540 0.158895 -0.987288 0.003736
-0.081120 0.352820 -0.585740 -0.217613 0.976010 -0.007040
-0.067960 0.356500 -0.548870 0.076033 -0.997061 0.009361
-0.040200 0.361250 -0.548880 0.076033 -0.997061 0.009361
-0.052810 0.358530 -0.684340 -0.136293 0.990659 -0.004394
-0.031680 0.359560 -0.651440 -0.080613 0.996716 -0.007637
-0.013780 0.361990 -0.682480 -0.034798 0.999390 -0.003063
-0.087420 0.351880 -0.749250 0.225290 -0.974288 0.002631
-0.101160 0.346930 -0.782470 0.265064 -0.964228 0.002111
-0.124480 0.341240 -0.749410 0.337877 -0.941189 -0.001260
-0.173160 0.317820 -0.783710 0.460002 -0.887918 0.000542
-0.156430 0.327860 -0.816130 0.416927 -0.908940 0.000898
-0.191370 0.309380 -0.817210 0.510349 -0.859968 0.000254
-0.208030 0.296680 -0.850640 0.571831 -0.820372 -0.000145
-0.224760 0.286640 -0.818230 0.607750 -0.794128 0.000801
-0.253030 0.263030 -0.816980 0.682636 -0.730758 -0.000768
-0.236370 0.275730 -0.783550 0.638246 -0.769832 0.000796
-0.254070 0.262030 -0.749350 0.684613 -0.728906 -0.001025
-0.225800 0.285650 -0.750580 -0.607666 0.794179 0.004785
-0.288600 0.222050 -0.647080 0.783107 -0.621887 0.000469
-0.302940 0.205850 -0.613930 0.817539 -0.575864 0.003118
-0.278960 0.235910 -0.614100 0.756446 -0.654025 0.006344
-0.301910 0.207160 -0.680600 0.812104 -0.583501 -0.003692
-0.277940 0.237230 -0.680770 0.753256 -0.657718 -0.003673
-0.310120 0.193020 -0.714350 0.839558 -0.543269 -0.000912
-0.320780 0.177840 -0.680660 0.866157 -0.499772 -0.000730
-0.302030 0.206970 -0.748030 0.812505 -0.582939 0.004225
-0.320900 0.177650 -0.748090 0.867449 -0.497527 0.000254
-0.337250 0.145570 -0.747910 0.912438 -0.409208 -0.002387
-0.351340 0.109930 -0.748280 0.947851 -0.318711 -0.001027
-0.343070 0.128050 -0.714780 0.930470 -0.366365 -0.001311
-0.336970 0.146270 -0.681090 0.911674 -0.410893 0.004205
-0.351050 0.110630 -0.681450 0.947345 -0.320212 0.001218
-0.360730 0.076260 -0.680840 0.973419 -0.229033 -0.000063
-0.354640 0.094490 -0.647160 0.962439 -0.271468 0.003968
-0.361150 0.075230 -0.612430 -0.975840 0.218397 -0.006213
-0.351470 0.109600 -0.613040 0.948618 -0.316405 0.003342
-0.344890 0.124240 -0.579200 0.934315 -0.356447 0.000415
-0.338370 0.143490 -0.613930 0.913129 -0.407669 0.001223
-0.322190 0.175050 -0.613500 0.868673 -0.495385 0.000267
-0.328770 0.160420 -0.647340 0.890252 -0.455465 0.001851
-0.312540 0.188920 -0.580520 0.846879 -0.531747 0.006432
-0.324620 0.171830 -0.546100 0.930427 -0.366425 0.006131
-0.305370 0.202630 -0.546530 0.728600 -0.684871 0.009694
-0.256240 0.259210 -0.512050 0.712743 -0.701414 0.003968
-0.239170 0.275880 -0.546070 0.574127 -0.818577 0.017605
-0.261180 0.254970 -0.546130 0.588460 -0.808522 0.002552
-0.268700 0.245680 -0.580550 0.728561 -0.684959 0.005408
-0.285770 0.229010 -0.546530 0.712743 -0.701414 0.003968
-0.289000 0.276230 -0.511750 0.000025 -0.000056 1.000000
-0.267000 0.297130 -0.511680 0.000025 -0.000056 1.000000
-0.311990 0.245550 -0.511750 0.000181 -0.000096 1.000000
-0.322740 0.283470 -0.511380 0.027009 -0.027056 0.999269
-0.370600 0.220650 -0.511380 0.004598 -0.003205 0.999984
-0.331580 0.219170 -0.511740 0.001543 -0.000392 0.999999
-0.356460 0.187020 -0.511740 0.002206 -0.000924 0.999997
-0.331650 0.156060 -0.512120 0.910728 -0.412999 0.002291
-0.370660 0.157550 -0.511760 0.005984 -0.001404 0.999981
-0.377460 0.118680 -0.511760 0.005984 -0.001404 0.999981
-0.402270 0.149640 -0.511380 0.038348 -0.014080 0.999165
-0.436680 0.133400 -0.511380 0.004028 -0.000986 0.999991
-0.429890 0.172270 -0.511380 0.003387 -0.000583 0.999994
-0.463940 0.116420 -0.511380 0.006177 -0.000633 0.999981
-0.436310 0.093790 -0.511380 0.004696 -0.001663 0.999988
-0.338820 0.142360 -0.546110 0.930427 -0.366425 0.006131
-0.351920 0.108460 -0.545220 0.930427 -0.366425 0.006131
-0.362010 0.072010 -0.545120 0.981259 -0.192559 0.007197
-0.355950 0.090130 -0.512030 0.933309 -0.359071 -0.001662
-0.364210 0.054830 -0.579730 0.985670 -0.168593 0.005574
-0.367370 0.039710 -0.613850 0.991677 -0.128619 0.005880
-0.363620 0.056460 -0.713740 0.984758 -0.173931 -0.000153
-0.367210 0.040320 -0.679440 0.991682 -0.128710 0.000736
-0.370300 0.000430 -0.745240 0.999789 -0.020359 0.002889
-0.369150 -0.036580 -0.744610 0.997247 0.074091 0.003010
-0.368950 -0.016480 -0.711700 0.999726 0.023423 -0.000026
-0.361110 0.074720 -0.747860 0.974933 -0.222494 0.001141
-0.355300 0.092250 -0.780990 0.962958 -0.269649 -0.001411
-0.351170 0.110340 -0.815150 0.948223 -0.317601 -0.001429
-0.360950 0.075130 -0.814730 0.974509 -0.224347 0.001175
-0.363400 0.057080 -0.847410 0.984542 -0.175145 0.000824
-0.367520 0.038990 -0.813250 0.991916 -0.126900 0.000196
-0.338140 0.142790 -0.881820 0.912429 -0.409195 -0.005662
-0.352430 0.106850 -0.882190 0.953419 -0.301633 0.002999
-0.342530 0.129170 -0.848510 0.928702 -0.370806 -0.003803
-0.322320 0.175760 -0.881760 0.866677 -0.498870 -0.000420
-0.332210 0.153440 -0.915430 0.903131 -0.429345 0.004135
-0.336880 0.146280 -0.814780 0.912145 -0.409865 0.001528
-0.329170 0.159530 -0.781590 0.892209 -0.451623 -0.000458
-0.320530 0.178350 -0.814960 0.866383 -0.499380 -0.001049
-0.309450 0.194120 -0.849340 0.839010 -0.544116 -0.000406
-0.303520 0.204780 -0.882950 0.816090 -0.577915 0.003378
-0.301730 0.207370 -0.816150 -0.811479 0.584346 0.006487
-0.189170 0.310850 -0.882340 0.511773 -0.859121 0.000001
-0.222560 0.288110 -0.883350 0.608889 -0.793255 -0.000831
-0.186440 0.311700 -0.949640 -0.635754 0.771889 -0.001999
-0.167520 0.320650 -0.915040 0.449102 -0.893457 0.006442
-0.150260 0.330070 -0.949620 -0.429422 0.903101 -0.002437
-0.179790 0.277020 -0.984650 -0.000044 -0.000014 -1.000000
-0.206390 0.260350 -0.984620 -0.000064 -0.000010 -1.000000
-0.195780 0.304450 -0.984200 -0.000595 0.001567 -0.999999
-0.147460 0.293480 -0.984660 -0.000045 0.000053 -1.000000
-0.158070 0.249380 -0.985080 0.003154 -0.005596 0.999979
-0.285170 0.226420 -0.984310 -0.782692 0.622409 -0.000491
-0.284630 0.227830 -0.951280 -0.784274 0.620398 -0.004508
-0.265950 0.250090 -0.951420 -0.784274 0.620398 -0.004508
-0.278030 0.237320 -0.884460 0.748152 -0.663527 0.000498
-0.290900 0.218960 -0.916880 0.788429 -0.615104 0.005128
-0.308860 0.130400 -0.984690 -0.000000 -0.000000 -1.000000
-0.320470 0.098830 -0.984620 -0.000000 -0.000000 -1.000000
-0.346630 0.118410 -0.984230 -0.001786 0.000433 -0.999998
-0.339600 0.030750 -0.984680 -0.000081 0.000017 -1.000000
-0.300600 0.014760 -0.985070 0.005926 0.000163 0.999982
-0.330700 -0.000840 -0.984680 -0.000000 -0.000000 -1.000000
-0.264750 -0.043960 -0.985080 0.001453 -0.000250 0.999999
-0.249760 -0.013560 -0.985080 0.000518 0.000004 1.000000
-0.222800 -0.040700 -0.985080 0.000019 -0.000009 1.000000
-0.189280 0.020610 -0.985080 -0.000000 -0.000000 1.000000
-0.149090 0.025020 -0.985080 0.000000 0.000000 1.000000
-0.167630 -0.005880 -0.985080 -0.000000 0.000000 1.000000
-0.207570 0.047850 -0.985080 0.000000 -0.000000 1.000000
-0.226110 0.016940 -0.985080 0.000039 0.000010 1.000000
-0.229510 0.075480 -0.985080 0.000056 -0.000019 1.000000
-0.192680 0.079140 -0.985080 0.000000 0.000000 1.000000
-0.276950 0.045270 -0.985080 0.002870 -0.000612 0.999996
-0.296100 0.078580 -0.985070 0.006971 -0.002299 0.999973
-0.263550 0.077500 -0.985080 0.002308 -0.001045 0.999997
-0.248660 0.108790 -0.985080 0.001746 -0.000918 0.999998
-0.111720 0.030770 -0.985080 0.000000 0.000000 1.000000
-0.133360 0.057260 -0.985080 -0.000000 -0.000000 1.000000
-0.086130 0.099210 -0.985080 0.000035 0.000065 1.000000
-0.050960 0.105950 -0.985080 -0.000001 0.000106 1.000000
-0.060800 0.069740 -0.985080 0.000001 0.000040 1.000000
-0.036990 0.042220 -0.985080 -0.000000 0.000000 1.000000
-0.072170 0.035480 -0.985080 0.000000 0.000000 1.000000
-0.143630 -0.090460 -0.985080 0.000100 -0.000018 1.000000
-0.162390 -0.122790 -0.985080 0.000062 0.000018 1.000000
-0.181830 -0.095550 -0.985080 0.000047 -0.000011 1.000000
-0.185440 -0.036760 -0.985080 0.000000 -0.000000 1.000000
-0.200430 -0.067160 -0.985080 -0.000000 -0.000000 1.000000
-0.219200 -0.099490 -0.985080 0.000025 0.000021 1.000000
-0.235550 -0.136010 -0.985080 0.001386 0.000778 0.999999
-0.254150 -0.107620 -0.985080 0.002112 0.001085 0.999997
-0.286660 -0.113100 -0.985080 0.006105 0.002940 0.999977
-0.270310 -0.076580 -0.985080 0.002580 0.000684 0.999996
-0.250600 -0.173040 -0.985070 0.004530 0.002948 0.999985
-0.261870 -0.217250 -0.984700 -0.001171 -0.000562 -0.999999
-0.281760 -0.188360 -0.984700 -0.001171 -0.000562 -0.999999
-0.215650 -0.164910 -0.985080 0.001191 0.000800 0.999999
-0.196380 -0.191160 -0.985080 0.001445 0.001060 0.999998
-0.181330 -0.154140 -0.985080 0.000061 0.000042 1.000000
-0.143120 -0.149050 -0.985080 0.000047 0.000059 1.000000
-0.141540 -0.204840 -0.985080 0.000044 0.000028 1.000000
-0.151490 -0.241850 -0.985080 0.001335 0.001737 0.999998
-0.172010 -0.217400 -0.985080 0.000834 0.000848 0.999999
-0.123810 -0.176580 -0.985080 0.000010 0.000062 1.000000
-0.103290 -0.201030 -0.985080 0.000000 0.000000 1.000000
-0.085330 -0.266430 -0.985080 0.000458 0.001940 0.999998
-0.117380 -0.261130 -0.985080 0.001191 0.002342 0.999997
-0.088970 -0.234580 -0.985080 0.000000 0.000000 1.000000
-0.147850 -0.273690 -0.985080 0.003027 0.005737 0.999979
-0.071240 -0.206320 -0.985080 0.000068 0.000027 1.000000
-0.050790 -0.177010 -0.985080 0.000107 0.000065 1.000000
-0.036470 -0.210570 -0.985080 0.000119 0.000041 1.000000
-0.003060 -0.216070 -0.985090 0.000097 0.000056 1.000000
-0.023510 -0.245380 -0.985080 0.000091 0.000071 1.000000
0.109580 -0.280390 -0.985080 -0.001131 0.004909 0.999987
0.126300 -0.318920 -0.984810 0.000026 -0.000080 -1.000000
0.094320 -0.318270 -0.984810 0.000034 -0.000060 -1.000000
0.097260 -0.247800 -0.985080 -0.000031 0.000857 1.000000
0.129250 -0.248460 -0.985080 -0.000907 0.001847 0.999998
0.037830 -0.161260 -0.985090 0.000000 0.000000 1.000000
0.017970 -0.190100 -0.985090 0.000029 0.000011 1.000000
0.003840 -0.152420 -0.985090 0.000028 0.000012 1.000000
0.042210 -0.093880 -0.985090 -0.000011 -0.000020 1.000000
0.076070 -0.103000 -0.985090 -0.000014 -0.000028 1.000000
0.057540 -0.132710 -0.985090 0.000000 -0.000000 1.000000
0.007720 -0.087540 -0.985090 0.000000 0.000000 1.000000
0.026250 -0.057830 -0.985090 -0.000017 -0.000097 1.000000
-0.011760 -0.118710 -0.985090 0.000016 0.000013 1.000000
-0.027720 -0.082670 -0.985090 0.000001 -0.000031 1.000000
-0.066190 -0.084780 -0.985090 0.000022 -0.000022 1.000000
-0.085700 -0.115780 -0.985090 0.000042 0.000078 1.000000
-0.104680 -0.086710 -0.985090 0.000088 -0.000032 1.000000
-0.046710 -0.053600 -0.985090 0.000015 -0.000100 1.000000
0.111260 -0.115700 -0.985090 -0.000023 -0.000010 1.000000
0.095930 -0.076870 -0.985090 -0.000011 -0.000083 1.000000
0.140700 -0.028130 -0.985080 0.000035 -0.000114 1.000000
0.154020 -0.065560 -0.985090 -0.000052 -0.000039 1.000000
0.117820 -0.052140 -0.985080 0.000024 -0.000115 1.000000
0.082620 -0.039440 -0.985080 -0.000021 -0.000115 1.000000
0.133730 0.005910 -0.985080 0.000023 -0.000043 1.000000
0.169930 -0.007500 -0.985080 -0.000005 -0.000073 1.000000
0.098070 0.020640 -0.985080 0.000000 0.000000 1.000000
0.127300 0.041270 -0.985080 -0.000000 0.000000 1.000000
0.071510 0.159350 -0.985080 -0.000000 -0.000000 1.000000
0.076970 0.197690 -0.985080 0.000000 -0.000000 1.000000
0.101690 0.172850 -0.985080 -0.000046 0.000007 1.000000
0.186830 0.271160 -0.984690 -0.000000 -0.000000 -1.000000
0.152880 0.256350 -0.985080 -0.003229 -0.005365 0.999980
0.158880 0.291450 -0.984690 0.000022 -0.000006 -1.000000
0.221590 0.284090 -0.984350 0.001113 0.001474 -0.999998
0.215590 0.248990 -0.984730 0.000003 0.000003 -1.000000
0.163510 0.321010 -0.984250 0.001888 0.002495 -0.999995
0.143470 0.332110 -0.950470 0.344813 0.938666 -0.003082
0.172780 0.317360 -0.950520 0.349846 0.936803 -0.002648
0.185880 0.308780 -0.917870 -0.510923 -0.859443 0.017762
0.205920 0.297690 -0.951660 0.513232 0.858209 -0.008431
0.246510 0.264050 -0.920640 -0.680388 -0.732089 0.033431
0.262170 0.250450 -0.953320 0.712345 0.701824 -0.002519
0.234690 0.275520 -0.951700 0.712345 0.701824 -0.002519
0.242480 0.226530 -0.984730 -0.000002 0.000001 -1.000000
0.207720 0.213600 -0.985080 -0.004245 -0.004668 0.999980
0.196860 0.180170 -0.985080 -0.000738 -0.000763 0.999999
0.222320 0.160650 -0.985080 -0.001810 -0.001358 0.999997
0.184580 0.149680 -0.985080 0.000035 -0.000030 1.000000
0.169980 0.202630 -0.985080 -0.000903 -0.001299 0.999999
0.181150 0.112140 -0.985080 0.000018 -0.000046 1.000000
0.155700 0.131660 -0.985080 -0.000008 -0.000048 1.000000
0.193430 0.047230 -0.985080 -0.000000 -0.000000 1.000000
0.157620 0.060330 -0.985080 -0.000000 -0.000000 1.000000
0.188080 0.081020 -0.985080 -0.000000 -0.000000 1.000000
0.216960 0.099040 -0.985080 0.000000 -0.000000 1.000000
0.328600 0.156940 -0.833170 0.892157 0.451696 -0.005134
0.335360 0.140010 -0.799810 0.916351 0.400349 -0.004696
0.343880 0.122350 -0.824480 0.937770 0.347241 -0.003317
0.354580 0.088780 -0.822540 0.965262 0.261211 -0.006144
0.347820 0.105710 -0.855880 0.954179 0.299237 0.000016
0.358250 0.070990 -0.789870 0.977108 0.212617 -0.007305
0.362200 0.054350 -0.821270 0.986798 0.161630 -0.010290
0.366170 0.017850 -0.820030 -0.997703 -0.064965 0.019206
0.366620 0.000420 -0.786070 0.999856 0.011233 -0.012685
0.366920 -0.018290 -0.817480 0.999486 -0.028968 -0.013763
0.364310 -0.053490 -0.819950 0.991906 -0.126257 -0.013444
0.363870 -0.036060 -0.853910 0.996888 -0.078554 0.006666
0.349390 -0.113770 -0.743690 0.956037 -0.293242 0.001761
0.346550 -0.128100 -0.774120 0.947197 -0.320622 0.004378
0.355840 -0.097110 -0.773510 0.967788 -0.251731 0.004314
0.352210 -0.104550 -0.859980 0.964534 -0.263956 -0.000672
0.357130 -0.091350 -0.830160 0.973121 -0.230233 -0.005319
0.360180 -0.073590 -0.793730 0.983391 -0.181499 -0.000875
0.366340 0.032070 -0.756400 0.993916 0.110031 -0.004893
0.362510 0.035640 -0.852690 0.993732 0.111780 -0.001668
0.360400 0.061010 -0.720350 0.982017 0.188793 -0.000446
0.359930 0.065510 -0.752570 0.977274 0.211980 -0.000756
0.352310 0.099930 -0.753830 0.954692 0.297592 -0.001230
0.353850 0.095130 -0.678880 0.960973 0.276638 -0.001740
0.360340 0.061880 -0.685430 0.982695 0.185223 0.001643
0.366750 0.028440 -0.689260 0.994883 0.100764 0.007427
0.340410 0.130570 -0.766520 0.924475 0.381217 -0.004347
0.342090 0.125090 -0.729210 -0.930421 -0.366482 0.002783
0.325140 0.165160 -0.775200 0.883394 0.468627 -0.002067
0.266440 0.243740 -0.859090 0.727193 0.686429 0.002306
0.284310 0.226320 -0.891950 0.775225 0.631682 0.001817
0.256120 0.256410 -0.889400 0.699316 0.714812 0.001230
0.282170 0.228670 -0.831270 0.773451 0.633840 -0.004490
0.294900 0.209140 -0.804700 0.810208 0.586057 -0.010029
0.307360 0.194120 -0.835070 0.836846 0.547348 -0.009945
0.307880 0.193390 -0.781140 0.841885 0.539602 -0.007670
0.282690 0.227940 -0.777330 0.775315 0.631570 -0.002420
0.244580 0.266260 -0.792080 0.666374 0.745617 -0.000697
0.234700 0.276170 -0.751480 0.638775 0.769392 -0.001235
0.259830 0.253590 -0.760280 0.707270 0.706941 0.001739
0.272810 0.237850 -0.736730 0.748264 0.663398 0.001779
0.273370 0.237120 -0.705850 0.746781 0.665068 0.001954
0.296230 0.211470 -0.722890 0.804901 0.593394 -0.004204
0.313490 0.183230 -0.716960 0.857814 0.513960 -0.000532
0.314350 0.181490 -0.681490 0.855661 0.517528 -0.003078
0.331050 0.153980 -0.706430 0.898297 0.439388 0.000208
0.312930 0.183960 -0.747840 0.853487 0.521102 -0.003449
0.354740 0.091790 -0.608060 0.963064 0.269255 -0.003060
0.343080 0.123410 -0.612690 0.936064 0.351830 -0.000217
0.344100 0.119400 -0.579510 0.937816 0.347119 -0.003074
0.342810 0.124020 -0.656100 0.934688 0.355470 -0.000172
0.332170 0.151620 -0.627550 0.903186 0.429241 0.002529
0.299840 0.206190 -0.597410 0.820844 0.571134 0.004548
0.312730 0.183420 -0.575870 -0.854749 -0.518874 0.013217
0.319540 0.173780 -0.605680 0.866127 0.499823 -0.000568
0.286760 0.221680 -0.633050 0.782806 0.622265 0.000710
0.279950 0.231320 -0.603240 0.767373 0.641180 0.005172
0.229480 0.280870 -0.544630 -0.499542 -0.866284 0.003137
0.215830 0.289950 -0.581020 0.590521 0.807018 -0.002792
0.204380 0.299380 -0.548430 -0.488021 -0.872818 0.004912
0.255910 0.257450 -0.544560 -0.711685 -0.702486 0.004179
0.244460 0.266890 -0.511980 -0.712627 -0.701519 0.005826
0.304850 0.272450 -0.511650 -0.000066 -0.000017 1.000000
0.342030 0.267490 -0.511380 -0.003148 -0.001849 0.999993
0.308080 0.238520 -0.511650 -0.000380 -0.000249 1.000000
0.332680 0.204410 -0.511750 -0.001076 -0.000397 0.999999
0.295490 0.209370 -0.512010 -0.837507 -0.546416 0.003430
0.370670 0.204350 -0.511390 -0.000380 -0.000249 1.000000
0.358080 0.175200 -0.511750 -0.001270 -0.000544 0.999999
0.390490 0.101540 -0.511660 -0.005063 -0.000444 0.999987
0.357080 0.078740 -0.511950 -0.982615 -0.185463 0.008479
0.372550 0.143680 -0.511660 -0.003622 -0.000658 0.999993
0.414000 0.133000 -0.511380 -0.020428 -0.007392 0.999764
0.374440 0.249770 -0.511380 -0.001961 -0.001161 0.999997
0.371200 0.283690 -0.511380 -0.000958 -0.000336 0.999999
0.370840 0.322820 -0.511380 -0.000216 -0.000158 1.000000
0.403250 0.305100 -0.511370 -0.000097 -0.000062 1.000000
0.433060 0.326580 -0.511370 -0.001725 0.000104 0.999999
0.433410 0.287450 -0.511370 -0.002022 0.000120 0.999998
0.460540 0.268440 -0.511370 -0.038356 0.001542 0.999263
0.430720 0.246960 -0.511370 -0.002226 0.000056 0.999998
0.493640 0.294620 -0.511020 0.000230 0.000136 -1.000000
0.490950 0.254140 -0.511020 0.001508 0.000313 -0.999999
0.492750 0.120300 -0.511040 0.007412 0.000729 -0.999972
0.493020 0.150510 -0.510880 0.007005 0.000374 -0.999975
0.523960 0.118580 -0.510550 0.007005 0.000374 -0.999975
0.524460 0.126020 -0.472480 0.999999 -0.000037 -0.001670
0.524200 0.095820 -0.472640 0.999999 -0.000083 -0.001457
0.524700 0.065360 -0.436840 0.999983 -0.000166 -0.005840
0.524200 0.057910 -0.474910 0.999996 -0.000251 -0.002819
0.523790 0.060160 -0.510720 0.007761 0.000777 -0.999970
0.524700 0.104600 -0.361440 0.999994 -0.000686 0.003278
0.524700 0.084980 -0.400910 1.000000 -0.000129 -0.000762
0.524700 0.122880 -0.395090 1.000000 -0.000263 -0.000012
0.524700 0.138850 -0.434210 0.999992 -0.000417 -0.003932
0.524700 0.158470 -0.394740 1.000000 -0.000115 -0.000124
0.524700 0.173810 -0.330800 0.999993 -0.001749 0.003385
0.524380 0.172360 -0.286220 1.000000 0.000000 0.000000
0.524690 0.214210 -0.339790 0.999999 -0.000974 0.001085
0.524690 0.182890 -0.364610 0.999999 -0.000526 0.001015
0.524690 0.254860 -0.346020 1.000000 0.000046 -0.000050
0.524690 0.245780 -0.312210 0.999998 -0.001177 0.001342
0.524690 0.263230 -0.378210 1.000000 0.000017 0.000051
0.524690 0.294800 -0.350630 1.000000 0.000000 -0.000000
0.524690 0.236200 -0.407990 0.999999 -0.000096 -0.001430
0.524690 0.276140 -0.412600 0.999999 -0.000134 -0.001453
0.524360 0.376110 -0.485960 1.000000 0.000073 -0.000052
0.524690 0.360200 -0.454510 1.000000 0.000000 0.000000
0.524360 0.339420 -0.479380 1.000000 0.000000 0.000000
0.524040 0.317830 -0.510760 0.002114 -0.000053 -0.999998
0.493630 0.332130 -0.511100 0.000389 0.000153 -1.000000
0.464500 0.348420 -0.511370 -0.042493 0.001678 0.999095
0.494900 0.371620 -0.511100 0.000389 0.000153 -1.000000
0.494910 0.416470 -0.511020 0.000359 0.000137 -1.000000
0.524040 0.400180 -0.510750 0.002618 0.001424 -0.999996
0.524380 0.420960 -0.485880 0.999999 0.000764 -0.000785
0.524380 0.450210 -0.468880 0.999999 0.000764 -0.000785
0.524690 0.426150 -0.444090 0.999987 0.002437 -0.004487
0.524050 0.481950 -0.481700 0.999995 0.002531 -0.001742
0.524370 0.487140 -0.439910 1.000000 0.000774 -0.000347
0.459980 0.423310 -0.511370 -0.031726 -0.001816 0.999495
0.489120 0.451860 -0.511020 0.000981 0.000612 -0.999999
0.434330 0.366070 -0.511370 -0.001546 0.000044 0.999999
0.339630 0.338820 -0.511380 -0.000298 -0.000408 1.000000
0.371670 0.360230 -0.511370 -0.000083 -0.000049 1.000000
0.308750 0.350240 -0.511380 -0.000436 -0.000809 1.000000
0.307920 0.312840 -0.511380 -0.002215 -0.002616 0.999994
0.276590 0.360440 -0.511380 -0.000929 -0.001513 0.999998
0.245110 0.346340 -0.511380 -0.016839 -0.036129 0.999205
0.244660 0.382520 -0.511380 -0.000959 -0.001493 0.999998
0.240750 0.419980 -0.511370 0.000166 -0.001342 0.999999
0.239150 0.451170 -0.511370 -0.000173 -0.004501 0.999990
0.274540 0.427810 -0.511370 -0.000150 -0.002328 0.999997
0.307980 0.455750 -0.511370 -0.000075 -0.007541 0.999972
0.309590 0.424560 -0.511380 -0.000077 -0.002326 0.999997
0.341740 0.414370 -0.511380 -0.000132 -0.000884 1.000000
0.308300 0.386420 -0.511370 -0.000022 -0.000047 1.000000
0.370370 0.399450 -0.511370 -0.000171 -0.000278 1.000000
0.371660 0.437600 -0.511380 -0.000249 -0.002984 0.999996
0.374330 0.485500 -0.511170 0.000126 0.000132 -1.000000
0.402950 0.470590 -0.511170 0.000066 0.000017 -1.000000
0.429910 0.488600 -0.511170 0.000981 0.000612 -0.999999
0.427240 0.440690 -0.511380 -0.001566 -0.003231 0.999994
0.281070 0.489060 -0.510900 0.000133 0.000309 -1.000000
0.250840 0.488890 -0.511130 0.000209 0.001504 -0.999999
0.258970 0.518950 -0.510660 0.000002 0.002447 -0.999997
0.217050 0.481060 -0.511130 0.000028 0.001652 -0.999999
0.298950 0.519630 -0.421830 0.000170 0.999998 -0.001738
0.278830 0.519630 -0.446120 -0.002521 -0.999774 0.021130
0.252400 0.519630 -0.426540 0.000089 -0.999997 0.002320
0.160780 0.519640 -0.388610 0.000006 1.000000 -0.000041
0.178920 0.519640 -0.414760 -0.000101 0.999999 -0.001667
0.138570 0.519640 -0.421380 0.000052 0.999998 -0.002213
0.164160 0.519270 -0.479150 0.000095 1.000000 -0.000198
0.194490 0.519630 -0.449180 -0.001033 0.999651 -0.026415
0.201940 0.519270 -0.480800 0.000051 1.000000 -0.000211
0.216700 0.519640 -0.416410 -0.000104 -0.999998 0.001974
0.204440 0.519640 -0.343360 0.000806 -0.999999 -0.001517
0.173090 0.519640 -0.358480 -0.000524 0.999999 0.001618
0.176400 0.519640 -0.319840 -0.002936 0.999978 0.006030
0.132750 0.519640 -0.365090 -0.000658 0.999997 0.002523
0.096710 0.519640 -0.371910 -0.000737 0.999997 0.002508
0.109020 0.519640 -0.341780 -0.009005 0.999090 0.041678
0.076070 0.519210 -0.320290 -0.000675 0.999999 -0.000757
0.112110 0.519210 -0.313470 0.000039 1.000000 -0.000090
0.234710 0.519640 -0.357340 0.000047 1.000000 -0.000056
0.238020 0.519640 -0.318700 0.001089 -0.999998 -0.001775
0.270410 0.519640 -0.367470 -0.000077 -1.000000 0.000099
0.236820 0.519640 -0.392130 -0.000078 -1.000000 0.000096
0.267350 0.519640 -0.293760 0.001228 -0.999998 -0.001677
0.296820 0.519640 -0.269060 0.001338 -0.999998 -0.001549
0.297770 0.519640 -0.307980 0.000040 1.000000 -0.000061
0.459690 0.519630 -0.391990 -0.022390 -0.999749 0.000162
0.427780 0.519630 -0.409370 -0.001946 -0.999998 0.000769
0.426880 0.519630 -0.371350 -0.001781 -0.999998 -0.000083
0.491430 0.519240 -0.369090 0.000052 1.000000 -0.000048
0.491450 0.519160 -0.334630 0.000052 1.000000 -0.000048
0.524090 0.518780 -0.349750 0.999991 0.004143 0.000517
0.524400 0.475430 -0.298930 1.000000 0.000000 0.000000
0.524690 0.439730 -0.317250 0.999992 0.003915 0.000273
0.524400 0.483000 -0.333610 1.000000 0.000000 0.000000
0.524310 0.487720 -0.200590 0.999999 0.001214 -0.000298
0.524310 0.487850 -0.166050 0.999999 0.001214 -0.000298
0.524700 0.456520 -0.186700 0.999715 0.023862 0.000072
0.487710 0.519340 -0.160580 0.000943 0.999999 0.000511
0.490590 0.519340 -0.196030 0.000943 0.999999 0.000511
0.487700 0.519320 -0.125810 0.001128 0.999999 -0.000197
0.486190 0.519310 -0.094260 0.001308 0.999999 0.000027
0.523920 0.519030 -0.145170 0.002650 0.999996 0.000709
0.524310 0.485590 -0.093800 0.999999 0.001571 0.000308
0.524700 0.454410 -0.114680 0.999982 0.006021 0.000121
0.524310 0.487820 -0.131280 0.999999 0.001271 -0.000312
0.524690 0.394660 -0.162440 1.000000 -0.000005 -0.000026
0.524690 0.422850 -0.176750 0.999999 0.001549 0.000102
0.524690 0.428450 -0.137850 0.999997 0.002314 0.000055
0.524690 0.387640 -0.089620 0.999998 -0.002050 0.000668
0.524700 0.357900 -0.094870 0.999646 -0.024686 0.009906
0.524690 0.370520 -0.128790 0.999997 -0.002312 0.000960
0.524690 0.426220 -0.100370 0.999998 0.002022 0.000121
0.524700 0.413600 -0.066450 1.000000 0.000126 0.000281
0.524300 0.344010 0.000890 1.000000 -0.000464 -0.000157
0.524310 0.343840 0.034480 1.000000 0.000188 0.000260
0.523910 0.309120 0.016710 0.006786 -0.994829 -0.101336
0.523870 0.302990 -0.047950 0.010777 -0.955879 0.293563
0.524270 0.335860 -0.067360 0.999999 0.000800 0.000638
0.524300 0.342160 -0.036290 0.999998 -0.001846 0.000436
0.484550 0.305910 -0.032670 0.006566 -0.953951 0.299892
0.484530 0.299610 -0.063740 -0.020971 0.880627 -0.473345
0.487220 0.309260 0.000650 -0.004049 -0.996213 -0.086855
0.447880 0.305880 -0.015140 -0.001164 0.995726 -0.092346
0.487230 0.309090 0.034240 -0.011895 -0.996387 -0.084091
0.488740 0.304750 0.070840 -0.004049 -0.996213 -0.086855
0.452050 0.304890 0.054790 0.003518 -0.993079 -0.117398
0.418140 0.303380 0.079130 -0.002529 0.980139 0.198297
0.416620 0.307720 0.042540 0.008296 0.996283 0.085740
0.346860 0.310380 0.005810 -0.009398 -0.996229 -0.086250
0.380350 0.308110 0.028280 0.053899 0.997280 0.050272
0.349210 0.308490 0.044410 -0.009398 -0.996229 -0.086250
0.314200 0.341680 -0.000490 -0.998915 -0.016143 -0.043677
0.310150 0.337530 -0.039790 -0.972727 -0.003484 0.231929
0.311660 0.306620 -0.017350 -0.019388 -0.985742 0.167143
0.314440 0.343810 0.035960 -0.969733 -0.004520 -0.244127
0.312930 0.374730 0.013530 0.999616 0.026227 -0.008965
0.313910 0.409180 -0.009130 -0.996768 -0.002373 0.080299
0.314150 0.411320 0.027320 0.999431 0.003425 0.033545
0.310680 0.409990 0.065090 0.987461 -0.000184 0.157864
0.311670 0.444440 0.042430 0.995026 -0.005017 0.099492
0.303060 0.370410 -0.061220 0.969321 0.007785 -0.245677
0.308350 0.407040 -0.045190 -0.981851 0.005089 0.189588
0.298730 0.404850 -0.083490 -0.951651 0.002556 0.307170
0.289450 0.324780 -0.109700 0.851228 0.001260 -0.524794
0.296530 0.291910 -0.088270 -0.863146 0.002012 0.504950
0.300530 0.335350 -0.078080 0.872401 0.003896 -0.488776
0.278470 0.370990 -0.128840 0.887255 0.002427 -0.461273
0.274480 0.327540 -0.139030 0.863722 0.028416 -0.503167
0.490360 0.263710 -0.150170 0.011699 -0.874768 0.484401
0.490410 0.245580 -0.175540 0.017558 -0.871767 0.489606
0.523970 0.253440 -0.164430 0.019521 -0.878821 0.476753
0.524310 0.292390 -0.169930 1.000000 0.000000 0.000000
0.524700 0.327000 -0.167430 0.999728 -0.021516 0.008999
0.524310 0.306170 -0.136550 0.999999 -0.000940 0.000584
0.524270 0.318740 -0.106530 0.999999 -0.000864 0.000762
0.523880 0.284130 -0.109040 0.020971 -0.880627 0.473345
0.524690 0.369280 -0.232800 1.000000 0.000051 -0.000033
0.524690 0.351140 -0.201080 0.999999 -0.001353 0.000619
0.524690 0.331360 -0.232530 0.999999 -0.001052 0.000861
0.524690 0.358290 -0.296890 1.000000 0.000000 -0.000000
0.524690 0.399620 -0.306040 1.000000 0.000589 0.000052
0.524690 0.390830 -0.273420 1.000000 0.000444 -0.000042
0.524690 0.307700 -0.259860 0.999999 -0.001026 0.000862
0.524690 0.276160 -0.286960 0.999998 -0.001323 0.001293
0.524690 0.317970 -0.291350 1.000000 0.000052 -0.000049
0.524690 0.326750 -0.323980 1.000000 0.000000 -0.000000
0.524690 0.335120 -0.356170 1.000000 0.000000 0.000000
0.524690 0.374490 -0.362100 1.000000 0.000000 -0.000000
0.524690 0.342540 -0.388750 1.000000 0.000000 0.000000
0.524700 0.235500 -0.280720 0.999781 -0.013535 0.015965
0.524350 0.198210 -0.269820 1.000000 0.000000 0.000000
0.524350 0.228590 -0.244560 1.000000 0.000000 0.000000
0.524700 0.289550 -0.228140 0.999986 -0.004000 0.003583
0.524360 0.274270 -0.195310 1.000000 0.000052 -0.000047
0.524360 0.250600 -0.222640 1.000000 0.000000 0.000000
0.456780 0.232130 -0.189320 -0.005223 0.763995 -0.645201
0.483690 0.289940 -0.094570 0.018212 -0.876753 0.480597
0.483720 0.277380 -0.124580 0.011699 -0.874768 0.484401
0.450170 0.269520 -0.135700 0.012567 -0.880106 0.474612
0.444370 0.292860 -0.079280 0.007523 -0.954293 0.298778
0.419760 0.262990 -0.145430 0.000765 -0.866111 0.499852
0.426400 0.249320 -0.171020 -0.006477 -0.818909 0.573888
0.394260 0.274400 -0.128070 0.010656 0.889967 -0.455901
0.359330 0.280020 -0.115240 0.012308 0.906236 -0.422592
0.408600 0.288810 -0.097280 0.007629 0.925629 -0.378356
0.340640 0.298450 -0.070550 -0.016912 -0.901528 0.432391
0.329560 0.287880 -0.102170 0.363961 -0.015814 0.931280
0.375830 0.302210 -0.047390 0.016247 0.979032 -0.203060
0.342800 0.306240 -0.033490 -0.023414 -0.983176 0.181156
0.263960 0.297140 -0.153610 0.711660 -0.007796 -0.702481
0.414270 0.309610 0.003930 0.014340 0.999533 -0.026999
0.454910 0.253000 0.192430 0.009776 -0.831169 -0.555934
0.487570 0.271260 0.166710 0.008095 -0.835177 -0.549922
0.491250 0.250680 0.196990 0.008095 -0.835177 -0.549922
0.491400 0.233880 0.222060 0.008095 -0.835177 -0.549922
0.524050 0.252140 0.196340 0.999997 -0.002011 -0.001130
0.425780 0.238520 0.215100 0.000109 -0.770973 -0.636868
0.422100 0.259100 0.184810 -0.010249 0.837671 0.546079
0.386760 0.265700 0.170370 -0.003986 -0.860821 -0.508893
0.363960 0.254260 0.193220 0.000002 0.823017 0.568017
0.357760 0.275350 0.156110 -0.011668 -0.892677 -0.450545
0.415900 0.280190 0.147710 0.004848 0.905057 0.425262
0.487690 0.284240 0.139060 0.007051 -0.841103 -0.540829
0.452400 0.287070 0.126770 -0.011915 0.931808 0.362757
0.488850 0.297720 0.103680 -0.001614 -0.942412 -0.334452
0.381640 0.296500 0.100070 0.004237 0.960473 0.278342
0.417060 0.293670 0.112330 -0.000559 0.950109 0.311919
0.524030 0.301920 0.083140 0.010283 -0.936857 -0.349561
0.411600 0.306260 -0.029400 0.012905 0.989553 -0.143594
0.409440 0.298470 -0.066460 0.011327 0.965913 -0.258619
0.524690 0.376880 -0.018520 0.999982 -0.006051 0.000324
0.524690 0.412580 0.039410 1.000000 -0.000161 0.000069
0.524690 0.412950 0.004310 1.000000 -0.000479 0.000139
0.524700 0.446800 0.025060 0.999990 0.004562 0.000020
0.524700 0.411100 -0.032870 1.000000 -0.000562 0.000080
0.524700 0.449680 -0.043620 0.999986 0.005281 -0.000023
0.524690 0.364920 -0.167690 0.999999 -0.001450 0.000605
0.490640 0.519250 -0.231660 0.000943 0.999999 0.000511
0.523990 0.518960 -0.215580 0.004370 0.999990 -0.000309
0.489740 0.519250 -0.266420 0.000085 1.000000 -0.000038
0.456340 0.519630 -0.246870 0.005856 0.999983 -0.000572
0.524370 0.487630 -0.236220 1.000000 0.000199 -0.000007
0.524690 0.422720 -0.211290 0.999998 0.001829 -0.000344
0.524690 0.410610 -0.241960 0.999999 0.001101 -0.000350
0.524690 0.444280 -0.251900 0.999990 0.004360 -0.000727
0.524690 0.389410 -0.427890 0.999998 0.000092 -0.002014
0.524690 0.418660 -0.410890 0.999998 0.001596 -0.001141
0.524690 0.451350 -0.389510 0.999987 0.005063 -0.000151
0.524690 0.414610 -0.373310 0.999999 0.001056 0.000200
0.524690 0.407190 -0.340720 1.000000 0.000862 0.000129
0.524380 0.487130 -0.405650 1.000000 0.000000 0.000000
0.524050 0.518870 -0.418470 0.999987 0.004988 -0.001278
0.524380 0.483080 -0.368070 1.000000 0.000000 0.000000
0.524370 0.475520 -0.266890 1.000000 0.000000 0.000000
0.524080 0.518790 -0.283250 0.999999 0.001089 -0.000182
0.489780 0.519160 -0.298460 0.000085 1.000000 -0.000038
0.457110 0.519630 -0.317800 0.006165 0.999981 0.000078
0.492320 0.519260 -0.441380 0.000841 0.999999 -0.001027
0.492320 0.519250 -0.407120 0.000163 1.000000 -0.000080
0.463310 0.519400 -0.470200 0.000841 0.999999 -0.001027
0.495040 0.519030 -0.481560 0.003112 0.999987 -0.004143
0.494870 0.518510 -0.510350 0.005595 0.008280 -0.999950
0.523880 0.518370 -0.481520 0.999983 0.004905 -0.003068
0.428420 0.519630 -0.441290 -0.001214 -0.999989 0.004543
0.431150 0.519400 -0.481480 0.000650 1.000000 -0.000309
0.435830 0.518830 -0.510680 0.002542 0.002417 -0.999994
0.400940 0.519060 -0.481770 0.000042 1.000000 -0.000043
0.395610 0.519630 -0.420650 0.000005 -0.999997 0.002396
0.425560 0.519630 -0.335570 0.001565 0.999999 0.000072
0.393650 0.519630 -0.352960 0.000018 1.000000 -0.000025
0.423880 0.519630 -0.299410 0.001583 0.999999 0.000027
0.363780 0.519630 -0.375350 -0.000017 -1.000000 0.000027
0.362460 0.519630 -0.339570 0.000060 1.000000 -0.000082
0.329920 0.519640 -0.322620 -0.000077 -1.000000 0.000098
0.300440 0.519640 -0.347320 -0.000074 -1.000000 0.000101
0.359790 0.519640 -0.300230 0.000079 1.000000 -0.000095
0.302550 0.519630 -0.382110 0.000057 1.000000 -0.000086
0.230500 0.519200 -0.480860 0.000051 1.000000 -0.000211
0.260740 0.519380 -0.480630 0.000068 1.000000 -0.000196
0.200180 0.518840 -0.510820 0.000611 0.003128 -0.999995
0.307290 0.519380 -0.475920 0.000040 1.000000 -0.000052
0.336570 0.519320 -0.476040 0.000044 1.000000 -0.000060
0.318480 0.519070 -0.510560 0.000124 0.999990 -0.004391
0.360180 0.519630 -0.415070 -0.000078 0.999999 -0.001462
0.328980 0.519630 -0.401680 0.000057 1.000000 -0.000495
0.360820 0.519630 -0.446990 -0.001409 0.999730 -0.023179
0.376690 0.518750 -0.510820 0.000163 0.000453 -1.000000
0.372000 0.519320 -0.481620 0.000039 1.000000 -0.000064
0.345390 0.485760 -0.511030 0.000126 0.000132 -1.000000
0.316120 0.485820 -0.510910 0.000136 0.000204 -1.000000
0.433020 0.405300 -0.511370 -0.001524 -0.000632 0.999999
0.401590 0.383460 -0.511370 -0.000029 -0.000087 1.000000
0.460120 0.488930 -0.510880 0.001168 0.001724 -0.999998
0.523880 0.481440 -0.510490 0.006826 0.005103 -0.999964
0.488940 0.488280 -0.510840 0.002542 0.002417 -0.999994
0.524690 0.352710 -0.421310 0.999999 -0.000399 -0.001593
0.524690 0.313340 -0.415380 0.999998 -0.000226 -0.001740
0.524380 0.301910 -0.479300 1.000000 0.000029 -0.000071
0.524690 0.286300 -0.445150 0.999787 -0.000983 -0.020608
0.524380 0.264710 -0.476520 1.000000 0.000029 -0.000071
0.524400 0.193130 -0.472200 1.000000 -0.000020 -0.000793
0.524460 0.161620 -0.472120 1.000000 -0.000020 -0.000793
0.524160 0.180300 -0.510470 0.999998 0.000091 -0.002231
0.524400 0.230460 -0.476460 1.000000 0.000000 0.000000
0.524700 0.211780 -0.438110 0.999993 -0.000007 -0.003800
0.524080 0.246070 -0.510610 0.999988 -0.000558 -0.004891
0.524690 0.198870 -0.403730 0.999999 -0.000023 -0.001112
0.492950 0.182030 -0.510960 0.002323 0.000344 -0.999997
0.459820 0.190090 -0.511370 -0.024979 0.000002 0.999688
0.490980 0.219890 -0.510960 0.001353 -0.000205 -0.999999
0.399830 0.220550 -0.511380 -0.001595 -0.001015 0.999998
0.426950 0.201550 -0.511380 -0.002666 -0.000390 0.999996
0.446880 0.121550 -0.511380 -0.006291 -0.000086 0.999980
0.428930 0.163690 -0.511380 -0.004014 -0.000439 0.999992
0.334570 0.143740 -0.512020 -0.861454 -0.507762 -0.008689
0.247530 0.307280 -0.511710 -0.000133 -0.000144 1.000000
0.273970 0.283870 -0.511650 -0.000066 -0.000053 1.000000
0.306560 0.195540 -0.539850 -0.855402 -0.517892 -0.008672
0.281960 0.229650 -0.539750 -0.844748 -0.535132 0.005778
0.266980 0.243630 -0.572400 0.727750 0.684860 -0.036685
0.205420 0.298370 -0.619420 0.560286 0.828282 -0.005344
0.230530 0.279850 -0.615610 0.627121 0.778916 -0.003106
0.203770 0.299360 -0.686170 0.554111 0.832441 -0.001583
0.170330 0.319410 -0.685060 0.459794 0.888026 -0.000256
0.186680 0.308320 -0.652910 0.515521 0.856872 -0.002953
0.235030 0.275890 -0.686850 0.642000 0.766704 0.001233
0.218680 0.286970 -0.719000 0.601029 0.799226 -0.001197
0.152860 0.326290 -0.717640 0.427640 0.903949 -0.000021
0.115710 0.341650 -0.782040 0.318398 0.947949 -0.003981
0.099390 0.347990 -0.748840 0.281315 0.959609 0.003561
0.134630 0.335800 -0.750140 0.368982 0.929436 -0.000023
0.132350 0.336510 -0.815730 0.361401 0.932386 -0.006710
0.097110 0.348700 -0.814430 0.270948 0.962580 -0.005078
0.166280 0.321680 -0.816470 0.450398 0.892826 -0.001723
0.147680 0.328730 -0.848850 0.405926 0.913905 0.001304
0.185210 0.309150 -0.783310 0.514179 0.857680 0.002002
0.200530 0.301370 -0.816430 0.545488 0.838112 0.003391
0.209930 0.293870 -0.853070 0.577402 0.816453 0.003417
0.228860 0.281340 -0.819910 0.620290 0.784364 0.003792
0.167170 0.321180 -0.883160 0.452249 0.891890 -0.001427
0.133250 0.336010 -0.882420 0.364550 0.931180 0.002538
-0.081940 0.353330 -0.880260 0.220481 -0.975381 -0.004424
-0.096260 0.348670 -0.914150 0.269837 -0.962906 0.000273
-0.117030 0.343680 -0.881140 0.313239 -0.949671 0.002471
-0.152990 0.329220 -0.882320 0.402945 -0.915204 0.006123
-0.138680 0.333880 -0.848440 0.386344 -0.922355 -0.000040
-0.064190 0.354830 -0.847860 0.166845 -0.985982 -0.001349
-0.043420 0.359820 -0.880880 -0.108958 0.994033 0.005112
-0.085010 0.352110 -0.948800 -0.256825 0.966456 0.002156
-0.120100 0.342470 -0.949670 -0.429422 0.903101 -0.002437
-0.139020 0.333520 -0.984280 -0.001530 0.003482 -0.999993
-0.117290 0.305880 -0.984700 -0.000001 0.000027 -1.000000
-0.070520 0.173930 -0.985090 0.000104 -0.000010 1.000000
-0.101140 0.163680 -0.985080 0.000121 0.000004 1.000000
-0.095380 0.202190 -0.985080 0.000112 -0.000036 1.000000
-0.062660 0.249480 -0.985080 0.000256 -0.001106 0.999999
-0.031130 0.259800 -0.985080 0.000349 -0.001552 0.999999
-0.033230 0.222760 -0.985090 0.000012 -0.000091 1.000000
-0.013030 0.360770 -0.984230 -0.059577 0.998195 -0.007515
0.012890 0.332440 -0.984650 -0.000198 0.000898 -1.000000
-0.020050 0.331250 -0.984670 -0.000115 0.000805 -1.000000
0.029870 0.251350 -0.985080 -0.000352 -0.000717 1.000000
0.002090 0.268000 -0.985080 -0.000244 -0.002013 0.999998
0.033660 0.286270 -0.985080 -0.000836 -0.004685 0.999989
0.054120 0.226910 -0.985080 -0.000091 -0.000177 1.000000
0.022540 0.208640 -0.985080 -0.000116 -0.000010 1.000000
0.084300 0.240400 -0.985080 -0.000083 -0.000933 1.000000
-0.019540 0.115770 -0.985080 -0.000058 0.000099 1.000000
-0.044870 0.145240 -0.985090 -0.000004 0.000092 1.000000
-0.039110 0.183750 -0.985090 0.000001 -0.000000 1.000000
0.005330 0.088350 -0.985080 -0.000021 0.000035 1.000000
0.011410 0.127640 -0.985080 -0.000074 0.000064 1.000000
0.016660 0.169630 -0.985080 -0.000116 0.000040 1.000000
0.041530 0.142210 -0.985080 -0.000052 0.000023 1.000000
0.042110 0.327800 -0.984780 0.000074 0.000018 -1.000000
0.049130 0.357320 -0.984350 0.154869 0.987933 0.001881
0.069890 0.311150 -0.984780 0.000052 0.000010 -1.000000
-0.027340 0.294720 -0.985080 0.000950 -0.006240 0.999980
-0.053260 0.323050 -0.984670 -0.000115 0.000805 -1.000000
-0.007580 0.194070 -0.985090 -0.000107 0.000011 1.000000
-0.125860 0.228890 -0.985080 0.000769 -0.001524 0.999999
-0.095250 0.239140 -0.985080 0.000471 -0.001172 0.999999
-0.187890 0.199710 -0.985080 0.001386 -0.001800 0.999997
-0.158200 0.212430 -0.985080 0.000812 -0.001373 0.999999
-0.155690 0.179220 -0.985080 0.000015 -0.000020 1.000000
-0.291770 0.162750 -0.984690 -0.000000 -0.000000 -1.000000
-0.265610 0.143180 -0.985080 0.006009 -0.003085 0.999977
-0.319430 0.177070 -0.984230 -0.001818 0.000435 -0.999998
-0.276190 0.189850 -0.984620 -0.000000 -0.000000 -1.000000
-0.228450 0.240800 -0.984760 -0.000064 -0.000010 -1.000000
-0.219460 0.204230 -0.985080 0.003972 -0.004116 0.999984
-0.257510 0.212110 -0.984760 -0.000000 -0.000000 -1.000000
-0.216960 0.171020 -0.985080 0.001903 -0.001437 0.999997
-0.093140 0.276180 -0.985080 0.001857 -0.005246 0.999985
-0.084700 0.316220 -0.984700 -0.000115 0.000805 -1.000000
-0.077410 0.352750 -0.984290 -0.001571 0.004371 -0.999989
-0.053570 0.358950 -0.948770 -0.053135 0.998587 0.000556
-0.006780 0.362110 -0.882180 0.016100 -0.999831 -0.008866
-0.024520 0.360600 -0.914590 -0.064988 0.997886 0.000243
0.026730 0.360940 -0.814380 -0.080058 -0.996730 0.010941
0.009230 0.360070 -0.848680 0.030483 0.999515 0.006393
-0.008170 0.362190 -0.814170 0.022315 -0.999709 0.009216
-0.044890 0.359440 -0.815390 0.113568 -0.993494 0.008484
-0.027390 0.360320 -0.781090 0.071175 -0.997451 0.005125
0.025220 0.361360 -0.747090 0.078153 0.996932 0.004403
0.060790 0.356750 -0.747530 0.165923 0.986103 0.008453
0.044900 0.358450 -0.780310 -0.128906 -0.991649 0.004007
0.062300 0.356330 -0.814810 -0.176848 -0.984195 0.009252
0.028120 0.360860 -0.882400 -0.085045 -0.996337 -0.008907
-0.016930 0.361240 -0.950080 0.118859 0.992909 0.001970
0.016010 0.362420 -0.950050 0.154869 0.987933 0.001881
0.048120 0.357880 -0.916010 -0.135829 -0.990709 -0.006743
0.064130 0.355850 -0.882510 0.179876 0.983657 0.008035
0.081240 0.352770 -0.950300 0.154869 0.987933 0.001881
0.052030 0.357410 -0.950170 0.154869 0.987933 0.001881
0.078940 0.351190 -0.848500 0.222289 0.974981 0.000540
0.098950 0.348220 -0.882120 0.275740 0.961212 0.006223
0.118440 0.340660 -0.916430 0.330833 0.943688 -0.001395
0.109170 0.344320 -0.950160 0.163887 0.986468 0.004653
0.106270 0.344220 -0.984340 0.001000 0.003473 -0.999993
0.169180 0.319950 -0.750840 0.458582 0.888651 -0.001420
0.203440 0.299640 -0.750800 0.558661 0.829396 0.000441
0.171980 0.318420 -0.618310 0.470249 0.882523 -0.004468
0.253900 0.259130 -0.608050 0.695633 0.718397 0.000549
0.243500 0.267550 -0.646450 0.668598 0.743615 -0.003622
0.258410 0.255160 -0.679280 0.706086 0.708113 -0.004278
0.326260 0.163140 -0.548130 -0.859822 -0.510516 -0.008929
0.340740 0.131620 -0.548040 -0.934680 -0.355489 -0.000946
0.360440 0.066520 -0.543420 -0.983048 -0.183351 0.000351
0.352400 0.100000 -0.543410 -0.983310 -0.181879 0.004529
0.319280 0.174390 -0.649080 0.867378 0.497648 -0.001750
0.301720 0.203640 -0.659620 0.821483 0.570231 -0.001625
0.281840 0.228780 -0.665450 0.771504 0.636218 -0.003036
0.253980 0.258760 -0.828720 0.698242 0.715860 0.001561
0.342950 0.123340 -0.693740 0.932349 0.361534 0.004375
0.315870 0.176470 -0.859740 0.864248 0.503054 -0.003412
0.329340 0.155510 -0.887880 0.896543 0.442924 0.005275
0.308100 0.192700 -0.889780 0.844681 0.535263 -0.002903
0.297780 0.205360 -0.920090 0.817117 0.576263 -0.015480
0.311040 0.188050 -0.951100 0.926216 0.376992 -0.001089
0.328030 0.157720 -0.951100 0.926216 0.376992 -0.001089
0.317500 0.174030 -0.984290 0.003511 0.001420 -0.999993
0.288240 0.164610 -0.984690 -0.000000 -0.000000 -1.000000
0.255280 0.158000 -0.985080 -0.005421 -0.003458 0.999979
0.267560 0.197750 -0.984680 -0.000000 -0.000000 -1.000000
0.305230 0.134280 -0.984690 -0.000000 -0.000000 -1.000000
0.243000 0.127510 -0.985080 -0.002181 -0.001131 0.999997
0.249930 0.096390 -0.985080 -0.001257 -0.000459 0.999999
0.275440 0.233140 -0.984330 0.002200 0.001412 -0.999997
0.287250 0.221670 -0.953270 0.712345 0.701824 -0.002519
0.228640 0.281470 -0.887780 0.624020 0.781407 -0.001426
0.200320 0.301510 -0.884300 0.547071 0.837057 -0.007027
0.129570 0.306200 -0.984640 0.000067 -0.000011 -1.000000
0.101640 0.314660 -0.984780 0.000074 0.000018 -1.000000
0.093190 0.273130 -0.985080 -0.001189 -0.004644 0.999989
0.116040 0.243910 -0.985080 -0.000847 -0.002062 0.999998
